# .PCD v0.7
VERSION 0.7
FIELDS x y z
SIZE 4 4 4
TYPE F F F
COUNT 1 1 1
WIDTH 2393
HEIGHT 1
VIEWPOINT 0 0 0 0 0 0 1
POINTS 2393
DATA ascii
-3.025 -0.435 1.065
-3.035 -0.425 1.065
-3.035 -0.425 1.075
-3.005 -0.435 1.065
-3.005 -0.425 1.065
-3.005 -0.435 1.075
-3.005 -0.425 1.075
-3.035 -0.415 1.065
-3.035 -0.415 1.075
-3.005 -0.415 1.065
-3.005 -0.415 1.075
-3.015 -0.405 1.075
-2.995 -0.435 1.045
-2.995 -0.435 1.055
-2.995 -0.435 1.065
-2.995 -0.435 1.075
-2.975 -0.435 1.075
-2.985 -0.475 1.085
-2.995 -0.465 1.085
-2.985 -0.465 1.085
-2.985 -0.475 1.095
-2.995 -0.465 1.095
-2.985 -0.465 1.095
-2.965 -0.465 1.085
-2.965 -0.465 1.095
-2.995 -0.455 1.085
-2.995 -0.445 1.085
-2.995 -0.455 1.095
-2.995 -0.445 1.095
-2.965 -0.455 1.085
-2.965 -0.445 1.085
-2.965 -0.455 1.095
-2.965 -0.445 1.095
-2.985 -0.475 1.105
-2.995 -0.465 1.105
-2.985 -0.465 1.105
-2.985 -0.475 1.115
-2.995 -0.465 1.115
-2.985 -0.465 1.115
-2.995 -0.455 1.105
-2.995 -0.445 1.105
-2.995 -0.455 1.115
-2.995 -0.445 1.115
-2.965 -0.455 1.105
-2.965 -0.445 1.105
-2.965 -0.455 1.115
-2.965 -0.445 1.115
-3.005 -0.435 1.085
-3.005 -0.425 1.085
-3.005 -0.435 1.095
-3.005 -0.425 1.095
-3.035 -0.415 1.085
-3.035 -0.415 1.095
-3.005 -0.415 1.085
-3.015 -0.405 1.085
-3.005 -0.415 1.095
-3.015 -0.405 1.095
-3.005 -0.435 1.105
-3.005 -0.425 1.105
-3.005 -0.435 1.115
-3.005 -0.425 1.115
-3.035 -0.415 1.105
-3.035 -0.415 1.115
-3.005 -0.415 1.105
-3.015 -0.405 1.105
-3.005 -0.415 1.115
-3.015 -0.405 1.115
-2.995 -0.435 1.085
-2.995 -0.435 1.095
-2.975 -0.435 1.085
-2.975 -0.425 1.085
-2.975 -0.435 1.095
-2.975 -0.425 1.095
-2.995 -0.435 1.105
-2.995 -0.435 1.115
-2.975 -0.435 1.105
-2.955 -0.475 1.065
-2.955 -0.475 1.075
-2.925 -0.475 1.065
-2.925 -0.475 1.075
-2.955 -0.475 1.085
-2.955 -0.475 1.095
-2.955 -0.475 1.105
-2.955 -0.475 1.115
-3.015 -0.395 1.085
-3.015 -0.395 1.095
-3.015 -0.395 1.105
-2.895 -0.575 1.135
-2.885 -0.575 1.135
-2.895 -0.565 1.135
-2.885 -0.585 1.145
-2.885 -0.585 1.155
-2.895 -0.575 1.145
-2.885 -0.575 1.145
-2.895 -0.565 1.145
-2.895 -0.575 1.155
-2.885 -0.575 1.155
-2.895 -0.565 1.155
-2.885 -0.585 1.165
-2.885 -0.585 1.175
-2.895 -0.575 1.165
-2.885 -0.575 1.165
-2.895 -0.565 1.165
-2.895 -0.575 1.175
-2.885 -0.575 1.175
-2.895 -0.565 1.175
-2.895 -0.575 1.185
-2.895 -0.565 1.185
-2.975 -0.505 1.125
-2.975 -0.505 1.135
-2.985 -0.485 1.125
-2.985 -0.485 1.135
-2.975 -0.495 1.125
-2.975 -0.495 1.135
-2.975 -0.505 1.145
-2.985 -0.485 1.145
-2.985 -0.485 1.155
-2.975 -0.495 1.145
-2.975 -0.495 1.155
-2.985 -0.485 1.165
-2.985 -0.485 1.175
-2.975 -0.495 1.165
-2.975 -0.495 1.175
-2.985 -0.485 1.185
-2.985 -0.485 1.195
-2.975 -0.495 1.185
-2.975 -0.495 1.195
-2.905 -0.545 1.125
-2.905 -0.545 1.135
-2.905 -0.535 1.125
-2.915 -0.525 1.125
-2.905 -0.535 1.135
-2.915 -0.525 1.135
-2.885 -0.535 1.125
-2.885 -0.525 1.125
-2.885 -0.535 1.135
-2.885 -0.525 1.135
-2.905 -0.545 1.145
-2.905 -0.545 1.155
-2.895 -0.555 1.145
-2.895 -0.555 1.155
-2.905 -0.535 1.145
-2.915 -0.525 1.145
-2.905 -0.535 1.155
-2.915 -0.525 1.155
-2.885 -0.535 1.145
-2.885 -0.525 1.145
-2.885 -0.535 1.155
-2.885 -0.525 1.155
-2.945 -0.515 1.125
-2.945 -0.505 1.125
-2.945 -0.515 1.135
-2.945 -0.505 1.135
-2.955 -0.495 1.125
-2.945 -0.495 1.125
-2.955 -0.485 1.125
-2.955 -0.495 1.135
-2.945 -0.495 1.135
-2.955 -0.485 1.135
-2.945 -0.515 1.145
-2.945 -0.505 1.145
-2.945 -0.505 1.155
-2.955 -0.495 1.145
-2.945 -0.495 1.145
-2.955 -0.495 1.155
-2.945 -0.495 1.155
-2.955 -0.485 1.155
-2.925 -0.495 1.145
-2.915 -0.515 1.125
-2.915 -0.505 1.125
-2.915 -0.515 1.135
-2.915 -0.505 1.135
-2.885 -0.515 1.125
-2.885 -0.505 1.125
-2.885 -0.515 1.135
-2.895 -0.505 1.135
-2.885 -0.505 1.135
-2.915 -0.515 1.145
-2.915 -0.505 1.145
-2.915 -0.515 1.155
-2.915 -0.505 1.155
-2.885 -0.515 1.145
-2.895 -0.505 1.145
-2.885 -0.505 1.145
-2.885 -0.515 1.155
-2.905 -0.545 1.165
-2.905 -0.545 1.175
-2.895 -0.555 1.165
-2.895 -0.555 1.175
-2.905 -0.535 1.165
-2.915 -0.525 1.165
-2.905 -0.535 1.175
-2.915 -0.525 1.175
-2.885 -0.535 1.165
-2.885 -0.525 1.165
-2.885 -0.535 1.175
-2.885 -0.525 1.175
-2.905 -0.545 1.185
-2.905 -0.545 1.195
-2.895 -0.555 1.185
-2.895 -0.555 1.195
-2.905 -0.535 1.185
-2.915 -0.525 1.185
-2.905 -0.535 1.195
-2.915 -0.525 1.195
-2.885 -0.535 1.185
-2.885 -0.525 1.185
-2.885 -0.535 1.195
-2.885 -0.525 1.195
-2.945 -0.505 1.165
-2.945 -0.505 1.175
-2.955 -0.495 1.165
-2.945 -0.495 1.165
-2.955 -0.485 1.165
-2.955 -0.495 1.175
-2.945 -0.495 1.175
-2.955 -0.485 1.175
-2.945 -0.515 1.185
-2.945 -0.505 1.185
-2.945 -0.515 1.195
-2.945 -0.505 1.195
-2.955 -0.495 1.185
-2.945 -0.495 1.185
-2.955 -0.485 1.185
-2.955 -0.495 1.195
-2.945 -0.495 1.195
-2.955 -0.485 1.195
-2.915 -0.515 1.165
-2.915 -0.505 1.165
-2.915 -0.515 1.175
-2.915 -0.505 1.175
-2.885 -0.515 1.165
-2.885 -0.515 1.175
-2.915 -0.515 1.185
-2.915 -0.505 1.185
-2.915 -0.515 1.195
-2.885 -0.515 1.195
-2.975 -0.505 1.205
-2.975 -0.505 1.215
-2.985 -0.485 1.205
-2.985 -0.485 1.215
-2.975 -0.495 1.205
-2.975 -0.495 1.215
-2.975 -0.515 1.225
-2.975 -0.505 1.225
-2.975 -0.515 1.235
-2.975 -0.505 1.235
-2.985 -0.485 1.225
-2.985 -0.485 1.235
-2.975 -0.495 1.225
-2.975 -0.495 1.235
-2.975 -0.515 1.245
-2.965 -0.515 1.245
-2.975 -0.505 1.245
-2.975 -0.515 1.255
-2.975 -0.505 1.255
-2.985 -0.485 1.245
-2.985 -0.485 1.255
-2.975 -0.495 1.245
-2.975 -0.495 1.255
-2.975 -0.515 1.265
-2.975 -0.505 1.265
-2.975 -0.515 1.275
-2.975 -0.505 1.275
-2.985 -0.485 1.265
-2.985 -0.485 1.275
-2.975 -0.495 1.265
-2.975 -0.495 1.275
-2.935 -0.525 1.205
-2.935 -0.525 1.215
-2.935 -0.525 1.225
-2.935 -0.525 1.235
-2.905 -0.545 1.205
-2.905 -0.535 1.205
-2.915 -0.525 1.205
-2.905 -0.535 1.215
-2.915 -0.525 1.215
-2.885 -0.535 1.205
-2.885 -0.525 1.205
-2.885 -0.535 1.215
-2.885 -0.525 1.215
-2.905 -0.535 1.225
-2.915 -0.525 1.225
-2.905 -0.535 1.235
-2.915 -0.525 1.235
-2.885 -0.535 1.225
-2.885 -0.525 1.225
-2.885 -0.535 1.235
-2.885 -0.525 1.235
-2.945 -0.515 1.205
-2.945 -0.505 1.205
-2.945 -0.515 1.215
-2.945 -0.505 1.215
-2.955 -0.495 1.205
-2.945 -0.495 1.205
-2.955 -0.485 1.205
-2.955 -0.495 1.215
-2.945 -0.495 1.215
-2.955 -0.485 1.215
-2.945 -0.515 1.225
-2.945 -0.505 1.225
-2.945 -0.515 1.235
-2.945 -0.505 1.235
-2.955 -0.495 1.225
-2.945 -0.495 1.225
-2.955 -0.485 1.225
-2.955 -0.495 1.235
-2.945 -0.495 1.235
-2.955 -0.485 1.235
-2.915 -0.515 1.205
-2.915 -0.515 1.215
-2.885 -0.515 1.205
-2.915 -0.515 1.225
-2.915 -0.515 1.235
-2.885 -0.515 1.225
-2.885 -0.515 1.235
-2.935 -0.525 1.245
-2.935 -0.525 1.255
-2.915 -0.525 1.245
-2.915 -0.525 1.255
-2.885 -0.535 1.245
-2.885 -0.525 1.245
-2.885 -0.535 1.255
-2.885 -0.525 1.255
-2.915 -0.525 1.265
-2.915 -0.525 1.275
-2.885 -0.535 1.265
-2.885 -0.525 1.265
-2.885 -0.535 1.275
-2.885 -0.525 1.275
-2.945 -0.515 1.245
-2.945 -0.505 1.245
-2.945 -0.515 1.255
-2.945 -0.505 1.255
-2.945 -0.515 1.265
-2.945 -0.505 1.265
-2.945 -0.515 1.275
-2.945 -0.505 1.275
-2.945 -0.495 1.265
-2.955 -0.495 1.275
-2.945 -0.495 1.275
-2.955 -0.485 1.275
-2.915 -0.515 1.245
-2.915 -0.515 1.255
-2.885 -0.515 1.245
-2.885 -0.515 1.255
-2.915 -0.515 1.265
-2.915 -0.515 1.275
-2.885 -0.515 1.265
-2.885 -0.515 1.275
-3.045 -0.405 1.125
-3.045 -0.405 1.135
-3.075 -0.405 1.145
-3.065 -0.405 1.145
-3.065 -0.415 1.155
-3.075 -0.405 1.155
-3.065 -0.405 1.155
-3.045 -0.405 1.145
-3.045 -0.405 1.155
-3.095 -0.405 1.175
-3.095 -0.405 1.185
-3.065 -0.425 1.165
-3.065 -0.425 1.175
-3.065 -0.415 1.165
-3.075 -0.405 1.165
-3.065 -0.405 1.165
-3.065 -0.415 1.175
-3.075 -0.405 1.175
-3.065 -0.405 1.175
-3.045 -0.405 1.165
-3.045 -0.405 1.175
-3.065 -0.415 1.185
-3.075 -0.405 1.185
-3.065 -0.405 1.185
-3.065 -0.415 1.195
-3.075 -0.405 1.195
-3.065 -0.405 1.195
-3.045 -0.405 1.185
-3.045 -0.405 1.195
-3.165 -0.325 1.125
-3.165 -0.325 1.135
-3.195 -0.325 1.155
-3.165 -0.325 1.145
-3.165 -0.325 1.155
-3.125 -0.345 1.125
-3.125 -0.345 1.135
-3.155 -0.335 1.125
-3.155 -0.335 1.135
-3.125 -0.335 1.125
-3.125 -0.335 1.135
-3.155 -0.345 1.155
-3.125 -0.345 1.145
-3.125 -0.345 1.155
-3.155 -0.335 1.145
-3.155 -0.335 1.155
-3.125 -0.335 1.145
-3.125 -0.335 1.155
-3.195 -0.335 1.165
-3.195 -0.325 1.165
-3.195 -0.335 1.175
-3.195 -0.325 1.175
-3.165 -0.325 1.165
-3.165 -0.325 1.175
-3.165 -0.325 1.185
-3.165 -0.325 1.195
-3.155 -0.345 1.165
-3.155 -0.355 1.175
-3.155 -0.345 1.175
-3.125 -0.345 1.165
-3.125 -0.345 1.175
-3.155 -0.335 1.165
-3.155 -0.335 1.175
-3.125 -0.335 1.165
-3.125 -0.335 1.175
-3.125 -0.325 1.175
-3.155 -0.345 1.185
-3.125 -0.345 1.185
-3.125 -0.345 1.195
-3.155 -0.335 1.185
-3.125 -0.335 1.185
-3.135 -0.325 1.185
-3.125 -0.325 1.185
-3.125 -0.335 1.195
-3.135 -0.325 1.195
-3.125 -0.325 1.195
-3.085 -0.375 1.125
-3.085 -0.365 1.125
-3.085 -0.375 1.135
-3.085 -0.365 1.135
-3.115 -0.365 1.155
-3.085 -0.375 1.145
-3.085 -0.365 1.145
-3.085 -0.375 1.155
-3.085 -0.365 1.155
-3.075 -0.385 1.125
-3.075 -0.385 1.135
-3.045 -0.395 1.125
-3.045 -0.385 1.125
-3.045 -0.395 1.135
-3.045 -0.385 1.135
-3.055 -0.375 1.125
-3.055 -0.365 1.125
-3.055 -0.375 1.135
-3.075 -0.395 1.145
-3.075 -0.385 1.145
-3.075 -0.395 1.155
-3.075 -0.385 1.155
-3.045 -0.395 1.145
-3.045 -0.385 1.145
-3.055 -0.375 1.145
-3.115 -0.355 1.125
-3.115 -0.355 1.135
-3.095 -0.355 1.125
-3.085 -0.355 1.125
-3.095 -0.345 1.125
-3.095 -0.355 1.135
-3.085 -0.355 1.135
-3.095 -0.345 1.135
-3.115 -0.355 1.145
-3.115 -0.355 1.155
-3.095 -0.355 1.145
-3.085 -0.355 1.145
-3.095 -0.345 1.145
-3.095 -0.355 1.155
-3.085 -0.355 1.155
-3.095 -0.345 1.155
-3.105 -0.395 1.165
-3.105 -0.385 1.165
-3.105 -0.395 1.175
-3.105 -0.385 1.175
-3.115 -0.375 1.165
-3.105 -0.375 1.165
-3.115 -0.365 1.165
-3.115 -0.375 1.175
-3.105 -0.375 1.175
-3.115 -0.365 1.175
-3.085 -0.375 1.165
-3.085 -0.365 1.165
-3.085 -0.375 1.175
-3.085 -0.365 1.175
-3.105 -0.395 1.185
-3.105 -0.385 1.185
-3.105 -0.395 1.195
-3.105 -0.385 1.195
-3.115 -0.375 1.185
-3.105 -0.375 1.185
-3.115 -0.365 1.185
-3.115 -0.375 1.195
-3.105 -0.375 1.195
-3.115 -0.365 1.195
-3.085 -0.375 1.185
-3.085 -0.365 1.185
-3.085 -0.375 1.195
-3.085 -0.365 1.195
-3.075 -0.395 1.165
-3.075 -0.385 1.165
-3.075 -0.395 1.175
-3.075 -0.385 1.175
-3.045 -0.395 1.175
-3.075 -0.395 1.185
-3.075 -0.385 1.185
-3.075 -0.395 1.195
-3.075 -0.385 1.195
-3.045 -0.395 1.185
-3.045 -0.395 1.195
-3.115 -0.355 1.165
-3.115 -0.355 1.175
-3.095 -0.355 1.165
-3.085 -0.355 1.165
-3.095 -0.345 1.165
-3.095 -0.355 1.175
-3.085 -0.355 1.175
-3.095 -0.345 1.175
-3.115 -0.355 1.185
-3.115 -0.355 1.195
-3.095 -0.355 1.185
-3.085 -0.355 1.185
-3.095 -0.345 1.185
-3.095 -0.355 1.195
-3.085 -0.355 1.195
-3.095 -0.345 1.195
-3.075 -0.405 1.205
-3.065 -0.405 1.205
-3.045 -0.405 1.205
-3.045 -0.405 1.215
-3.045 -0.405 1.225
-3.045 -0.405 1.235
-3.045 -0.405 1.245
-3.045 -0.405 1.255
-3.075 -0.405 1.265
-3.075 -0.405 1.275
-3.045 -0.405 1.265
-3.045 -0.405 1.275
-3.165 -0.325 1.205
-3.165 -0.325 1.215
-3.165 -0.325 1.225
-3.165 -0.325 1.235
-3.125 -0.345 1.205
-3.125 -0.345 1.215
-3.125 -0.335 1.205
-3.135 -0.325 1.205
-3.125 -0.325 1.205
-3.125 -0.335 1.215
-3.135 -0.325 1.215
-3.125 -0.325 1.215
-3.125 -0.345 1.225
-3.125 -0.345 1.235
-3.125 -0.335 1.225
-3.135 -0.325 1.225
-3.125 -0.325 1.225
-3.125 -0.335 1.235
-3.135 -0.325 1.235
-3.125 -0.325 1.235
-3.165 -0.325 1.245
-3.165 -0.325 1.255
-3.165 -0.325 1.265
-3.165 -0.325 1.275
-3.155 -0.345 1.255
-3.125 -0.345 1.245
-3.125 -0.345 1.255
-3.155 -0.335 1.245
-3.155 -0.335 1.255
-3.125 -0.335 1.245
-3.125 -0.325 1.245
-3.155 -0.355 1.265
-3.155 -0.345 1.265
-3.155 -0.355 1.275
-3.155 -0.345 1.275
-3.125 -0.345 1.265
-3.125 -0.345 1.275
-3.155 -0.335 1.265
-3.155 -0.335 1.275
-3.105 -0.395 1.205
-3.105 -0.385 1.205
-3.105 -0.385 1.215
-3.115 -0.375 1.205
-3.105 -0.375 1.205
-3.115 -0.365 1.205
-3.115 -0.375 1.215
-3.105 -0.375 1.215
-3.115 -0.365 1.215
-3.085 -0.375 1.205
-3.085 -0.375 1.215
-3.085 -0.365 1.215
-3.105 -0.385 1.225
-3.115 -0.375 1.225
-3.105 -0.375 1.225
-3.115 -0.365 1.225
-3.115 -0.375 1.235
-3.105 -0.375 1.235
-3.115 -0.365 1.235
-3.085 -0.375 1.225
-3.085 -0.365 1.225
-3.085 -0.375 1.235
-3.085 -0.365 1.235
-3.075 -0.395 1.205
-3.075 -0.385 1.205
-3.075 -0.395 1.215
-3.075 -0.385 1.215
-3.045 -0.395 1.205
-3.045 -0.385 1.205
-3.045 -0.395 1.215
-3.045 -0.385 1.215
-3.055 -0.375 1.215
-3.075 -0.395 1.225
-3.075 -0.385 1.225
-3.075 -0.395 1.235
-3.075 -0.385 1.235
-3.045 -0.395 1.225
-3.045 -0.385 1.225
-3.045 -0.395 1.235
-3.045 -0.385 1.235
-3.055 -0.375 1.225
-3.055 -0.375 1.235
-3.055 -0.365 1.235
-3.115 -0.355 1.205
-3.115 -0.355 1.215
-3.115 -0.355 1.225
-3.115 -0.355 1.235
-3.085 -0.355 1.235
-3.115 -0.365 1.245
-3.115 -0.365 1.255
-3.085 -0.375 1.245
-3.085 -0.365 1.245
-3.085 -0.375 1.255
-3.085 -0.365 1.255
-3.115 -0.365 1.265
-3.115 -0.375 1.275
-3.105 -0.375 1.275
-3.115 -0.365 1.275
-3.085 -0.375 1.265
-3.085 -0.365 1.265
-3.085 -0.375 1.275
-3.085 -0.365 1.275
-3.075 -0.395 1.245
-3.075 -0.385 1.245
-3.075 -0.395 1.255
-3.075 -0.385 1.255
-3.045 -0.395 1.245
-3.045 -0.385 1.245
-3.045 -0.395 1.255
-3.045 -0.385 1.255
-3.055 -0.375 1.245
-3.055 -0.365 1.245
-3.055 -0.375 1.255
-3.055 -0.365 1.255
-3.075 -0.395 1.265
-3.075 -0.385 1.265
-3.075 -0.395 1.275
-3.075 -0.385 1.275
-3.045 -0.395 1.265
-3.045 -0.385 1.265
-3.045 -0.395 1.275
-3.045 -0.385 1.275
-3.055 -0.375 1.275
-3.115 -0.355 1.245
-3.115 -0.355 1.255
-3.095 -0.355 1.245
-3.085 -0.355 1.245
-3.095 -0.355 1.255
-3.085 -0.355 1.255
-3.115 -0.355 1.265
-3.115 -0.355 1.275
-3.095 -0.355 1.265
-3.085 -0.355 1.265
-3.095 -0.355 1.275
-3.085 -0.355 1.275
-3.025 -0.445 1.155
-2.985 -0.475 1.125
-2.995 -0.465 1.125
-2.985 -0.465 1.125
-2.985 -0.475 1.135
-2.995 -0.465 1.135
-2.985 -0.465 1.135
-2.995 -0.455 1.125
-2.995 -0.445 1.125
-2.995 -0.455 1.135
-2.995 -0.445 1.135
-2.965 -0.455 1.125
-2.965 -0.445 1.125
-2.965 -0.455 1.135
-2.965 -0.445 1.135
-2.985 -0.475 1.145
-2.995 -0.465 1.145
-2.985 -0.465 1.145
-2.985 -0.475 1.155
-2.995 -0.465 1.155
-2.985 -0.465 1.155
-2.995 -0.455 1.145
-2.995 -0.445 1.145
-2.995 -0.455 1.155
-2.995 -0.445 1.155
-3.035 -0.425 1.125
-3.035 -0.435 1.135
-3.035 -0.425 1.135
-3.005 -0.435 1.125
-3.005 -0.425 1.125
-3.005 -0.435 1.135
-3.005 -0.425 1.135
-3.035 -0.415 1.125
-3.035 -0.415 1.135
-3.005 -0.415 1.125
-3.015 -0.405 1.125
-3.005 -0.415 1.135
-3.015 -0.405 1.135
-3.035 -0.435 1.145
-3.025 -0.435 1.145
-3.035 -0.425 1.145
-3.035 -0.435 1.155
-3.025 -0.435 1.155
-3.035 -0.425 1.155
-3.005 -0.435 1.145
-3.005 -0.425 1.145
-3.005 -0.435 1.155
-3.005 -0.425 1.155
-3.035 -0.415 1.145
-3.035 -0.415 1.155
-3.005 -0.415 1.145
-2.995 -0.435 1.125
-2.995 -0.435 1.135
-2.995 -0.435 1.145
-2.995 -0.435 1.155
-3.025 -0.445 1.165
-3.025 -0.445 1.175
-3.025 -0.445 1.185
-3.025 -0.455 1.195
-3.025 -0.445 1.195
-2.985 -0.475 1.165
-2.995 -0.465 1.165
-2.985 -0.465 1.165
-2.985 -0.475 1.175
-2.995 -0.465 1.175
-2.985 -0.465 1.175
-2.965 -0.465 1.165
-2.965 -0.465 1.175
-2.995 -0.455 1.165
-2.995 -0.445 1.165
-2.995 -0.455 1.175
-2.995 -0.445 1.175
-2.985 -0.475 1.185
-2.995 -0.465 1.185
-2.985 -0.465 1.185
-2.985 -0.475 1.195
-2.995 -0.465 1.195
-2.985 -0.465 1.195
-2.965 -0.465 1.185
-2.965 -0.465 1.195
-2.995 -0.455 1.185
-2.995 -0.445 1.185
-2.995 -0.455 1.195
-2.995 -0.445 1.195
-2.965 -0.455 1.195
-2.965 -0.445 1.195
-3.035 -0.435 1.165
-3.025 -0.435 1.165
-3.035 -0.425 1.165
-3.035 -0.435 1.175
-3.025 -0.435 1.175
-3.035 -0.425 1.175
-3.005 -0.435 1.165
-3.005 -0.425 1.165
-3.005 -0.435 1.175
-3.005 -0.425 1.175
-3.035 -0.415 1.165
-3.035 -0.415 1.175
-3.035 -0.435 1.185
-3.025 -0.435 1.185
-3.035 -0.425 1.185
-3.035 -0.435 1.195
-3.025 -0.435 1.195
-3.035 -0.425 1.195
-3.005 -0.435 1.185
-3.005 -0.425 1.185
-3.005 -0.435 1.195
-3.005 -0.425 1.195
-3.035 -0.415 1.185
-3.035 -0.415 1.195
-3.005 -0.415 1.195
-3.015 -0.405 1.195
-2.995 -0.435 1.165
-2.995 -0.435 1.175
-2.995 -0.435 1.185
-2.995 -0.435 1.195
-2.955 -0.475 1.165
-2.955 -0.475 1.175
-2.955 -0.475 1.185
-2.955 -0.475 1.195
-2.985 -0.475 1.205
-2.995 -0.465 1.205
-2.985 -0.465 1.205
-2.985 -0.475 1.215
-2.995 -0.465 1.215
-2.985 -0.465 1.215
-2.965 -0.465 1.205
-2.995 -0.455 1.205
-2.995 -0.445 1.205
-2.995 -0.455 1.215
-2.995 -0.445 1.215
-2.965 -0.455 1.205
-2.965 -0.445 1.205
-2.965 -0.455 1.215
-2.965 -0.445 1.215
-2.985 -0.475 1.225
-2.995 -0.465 1.225
-2.985 -0.465 1.225
-2.985 -0.475 1.235
-2.995 -0.465 1.235
-2.985 -0.465 1.235
-2.995 -0.455 1.225
-2.995 -0.445 1.225
-2.995 -0.455 1.235
-2.995 -0.445 1.235
-2.965 -0.445 1.225
-2.965 -0.445 1.235
-3.035 -0.435 1.205
-3.025 -0.435 1.205
-3.035 -0.425 1.205
-3.035 -0.435 1.215
-3.035 -0.425 1.215
-3.005 -0.435 1.205
-3.005 -0.425 1.205
-3.005 -0.435 1.215
-3.005 -0.425 1.215
-3.035 -0.415 1.205
-3.035 -0.415 1.215
-3.005 -0.415 1.205
-3.015 -0.405 1.205
-3.005 -0.415 1.215
-3.015 -0.405 1.215
-3.005 -0.435 1.225
-3.005 -0.425 1.225
-3.005 -0.435 1.235
-3.005 -0.425 1.235
-3.035 -0.415 1.225
-3.035 -0.415 1.235
-3.005 -0.415 1.225
-3.015 -0.405 1.225
-3.005 -0.415 1.235
-3.015 -0.405 1.235
-2.995 -0.435 1.205
-2.995 -0.435 1.215
-2.995 -0.435 1.225
-2.995 -0.435 1.235
-2.975 -0.435 1.235
-2.985 -0.475 1.245
-2.995 -0.465 1.245
-2.985 -0.465 1.245
-2.985 -0.475 1.255
-2.995 -0.465 1.255
-2.985 -0.465 1.255
-2.995 -0.455 1.245
-2.995 -0.445 1.245
-2.995 -0.455 1.255
-2.995 -0.445 1.255
-2.965 -0.445 1.245
-2.985 -0.475 1.265
-2.995 -0.465 1.265
-2.985 -0.465 1.265
-2.985 -0.475 1.275
-2.995 -0.465 1.275
-2.985 -0.465 1.275
-2.965 -0.465 1.275
-2.995 -0.455 1.265
-2.995 -0.445 1.265
-2.995 -0.455 1.275
-2.995 -0.445 1.275
-2.965 -0.455 1.275
-3.035 -0.425 1.245
-3.035 -0.425 1.255
-3.005 -0.435 1.245
-3.005 -0.425 1.245
-3.005 -0.435 1.255
-3.005 -0.425 1.255
-3.035 -0.415 1.245
-3.035 -0.415 1.255
-3.005 -0.415 1.245
-3.015 -0.405 1.245
-3.005 -0.415 1.255
-3.015 -0.405 1.255
-3.005 -0.435 1.265
-3.005 -0.425 1.265
-3.005 -0.435 1.275
-3.005 -0.425 1.275
-3.035 -0.415 1.265
-3.005 -0.415 1.265
-3.015 -0.405 1.265
-3.005 -0.415 1.275
-3.015 -0.405 1.275
-2.995 -0.435 1.245
-2.995 -0.435 1.255
-2.975 -0.435 1.245
-2.995 -0.435 1.265
-2.995 -0.435 1.275
-2.955 -0.475 1.205
-2.955 -0.475 1.235
-2.955 -0.475 1.275
-3.015 -0.395 1.265
-3.015 -0.395 1.275
-2.855 -0.605 0.965
-2.845 -0.615 0.975
-2.855 -0.605 0.975
-2.845 -0.615 0.985
-2.855 -0.605 0.985
-2.845 -0.615 0.995
-2.855 -0.605 0.995
-2.815 -0.635 0.965
-2.815 -0.625 0.965
-2.815 -0.635 0.975
-2.815 -0.625 0.975
-2.825 -0.615 0.965
-2.825 -0.605 0.965
-2.825 -0.615 0.975
-2.825 -0.605 0.975
-2.815 -0.635 0.985
-2.815 -0.625 0.985
-2.815 -0.635 0.995
-2.815 -0.625 0.995
-2.825 -0.615 0.985
-2.825 -0.605 0.985
-2.825 -0.615 0.995
-2.825 -0.605 0.995
-2.865 -0.585 0.965
-2.865 -0.585 0.975
-2.855 -0.595 0.965
-2.855 -0.585 0.965
-2.855 -0.595 0.975
-2.855 -0.585 0.975
-2.865 -0.575 0.965
-2.865 -0.565 0.965
-2.865 -0.575 0.975
-2.865 -0.565 0.975
-2.865 -0.585 0.985
-2.865 -0.585 0.995
-2.855 -0.595 0.985
-2.855 -0.585 0.985
-2.855 -0.595 0.995
-2.855 -0.585 0.995
-2.865 -0.575 0.985
-2.865 -0.565 0.985
-2.865 -0.575 0.995
-2.865 -0.565 0.995
-2.825 -0.595 0.975
-2.825 -0.595 0.985
-2.825 -0.595 0.995
-2.845 -0.615 1.005
-2.855 -0.605 1.005
-2.845 -0.615 1.015
-2.855 -0.605 1.015
-2.845 -0.615 1.025
-2.855 -0.605 1.025
-2.845 -0.615 1.035
-2.855 -0.605 1.035
-2.815 -0.635 1.005
-2.815 -0.625 1.005
-2.815 -0.635 1.015
-2.815 -0.625 1.015
-2.825 -0.615 1.005
-2.825 -0.605 1.005
-2.825 -0.615 1.015
-2.825 -0.605 1.015
-2.815 -0.635 1.025
-2.815 -0.625 1.025
-2.815 -0.625 1.035
-2.825 -0.615 1.025
-2.825 -0.605 1.025
-2.825 -0.615 1.035
-2.825 -0.605 1.035
-2.865 -0.585 1.005
-2.865 -0.585 1.015
-2.855 -0.595 1.005
-2.855 -0.585 1.005
-2.855 -0.595 1.015
-2.855 -0.585 1.015
-2.865 -0.575 1.005
-2.865 -0.565 1.005
-2.865 -0.575 1.015
-2.865 -0.565 1.015
-2.865 -0.585 1.025
-2.865 -0.585 1.035
-2.855 -0.595 1.025
-2.855 -0.585 1.025
-2.855 -0.595 1.035
-2.855 -0.585 1.035
-2.865 -0.575 1.025
-2.865 -0.565 1.025
-2.865 -0.575 1.035
-2.865 -0.565 1.035
-2.825 -0.595 1.005
-2.835 -0.585 1.005
-2.825 -0.595 1.015
-2.835 -0.585 1.015
-2.825 -0.595 1.025
-2.825 -0.595 1.035
-2.785 -0.635 0.965
-2.795 -0.625 0.965
-2.785 -0.625 0.965
-2.785 -0.635 0.975
-2.795 -0.625 0.975
-2.785 -0.625 0.975
-2.795 -0.615 0.965
-2.795 -0.615 0.975
-2.785 -0.635 0.985
-2.795 -0.625 0.985
-2.785 -0.625 0.985
-2.785 -0.635 0.995
-2.795 -0.625 0.995
-2.785 -0.625 0.995
-2.765 -0.635 0.985
-2.765 -0.635 0.995
-2.795 -0.615 0.985
-2.785 -0.635 1.005
-2.795 -0.625 1.005
-2.785 -0.625 1.005
-2.785 -0.635 1.015
-2.795 -0.625 1.015
-2.785 -0.625 1.015
-2.765 -0.635 1.005
-2.765 -0.625 1.005
-2.765 -0.635 1.015
-2.765 -0.625 1.015
-2.795 -0.615 1.005
-2.795 -0.615 1.015
-2.785 -0.635 1.025
-2.795 -0.625 1.025
-2.785 -0.625 1.025
-2.785 -0.635 1.035
-2.795 -0.625 1.035
-2.785 -0.625 1.035
-2.765 -0.635 1.025
-2.765 -0.625 1.025
-2.765 -0.635 1.035
-2.765 -0.625 1.035
-2.795 -0.615 1.025
-2.795 -0.615 1.035
-2.735 -0.635 1.015
-2.735 -0.635 1.025
-2.735 -0.635 1.035
-2.735 -0.625 1.035
-2.875 -0.555 0.965
-2.875 -0.545 0.965
-2.865 -0.555 0.985
-2.875 -0.555 0.995
-2.865 -0.555 0.995
-2.875 -0.545 0.995
-2.875 -0.555 1.005
-2.865 -0.555 1.005
-2.875 -0.545 1.005
-2.875 -0.555 1.015
-2.865 -0.555 1.015
-2.875 -0.545 1.015
-2.875 -0.535 1.005
-2.875 -0.535 1.015
-2.875 -0.555 1.025
-2.865 -0.555 1.025
-2.875 -0.545 1.025
-2.875 -0.555 1.035
-2.865 -0.555 1.035
-2.875 -0.545 1.035
-2.845 -0.615 1.045
-2.855 -0.605 1.045
-2.855 -0.605 1.055
-2.845 -0.615 1.065
-2.855 -0.605 1.065
-2.845 -0.615 1.075
-2.855 -0.605 1.075
-2.815 -0.625 1.045
-2.815 -0.625 1.055
-2.825 -0.615 1.045
-2.825 -0.605 1.045
-2.825 -0.615 1.055
-2.825 -0.605 1.055
-2.815 -0.625 1.065
-2.815 -0.625 1.075
-2.825 -0.615 1.065
-2.825 -0.605 1.065
-2.825 -0.615 1.075
-2.825 -0.605 1.075
-2.865 -0.585 1.045
-2.865 -0.585 1.055
-2.855 -0.595 1.045
-2.855 -0.585 1.045
-2.855 -0.595 1.055
-2.855 -0.585 1.055
-2.865 -0.575 1.045
-2.865 -0.565 1.045
-2.865 -0.575 1.055
-2.865 -0.565 1.055
-2.865 -0.585 1.065
-2.865 -0.585 1.075
-2.855 -0.595 1.065
-2.855 -0.585 1.065
-2.855 -0.595 1.075
-2.855 -0.585 1.075
-2.865 -0.575 1.065
-2.865 -0.565 1.065
-2.865 -0.575 1.075
-2.865 -0.565 1.075
-2.825 -0.595 1.055
-2.835 -0.585 1.055
-2.825 -0.595 1.065
-2.835 -0.585 1.065
-2.825 -0.595 1.075
-2.835 -0.585 1.075
-2.835 -0.575 1.075
-2.855 -0.605 1.085
-2.855 -0.605 1.095
-2.825 -0.615 1.085
-2.825 -0.605 1.085
-2.825 -0.615 1.095
-2.825 -0.605 1.095
-2.825 -0.615 1.105
-2.825 -0.605 1.105
-2.825 -0.615 1.115
-2.825 -0.605 1.115
-2.865 -0.585 1.085
-2.865 -0.585 1.095
-2.855 -0.595 1.085
-2.855 -0.585 1.085
-2.855 -0.595 1.095
-2.855 -0.585 1.095
-2.865 -0.575 1.085
-2.865 -0.565 1.085
-2.865 -0.575 1.095
-2.865 -0.565 1.095
-2.845 -0.565 1.095
-2.865 -0.585 1.105
-2.865 -0.585 1.115
-2.855 -0.595 1.105
-2.855 -0.585 1.105
-2.855 -0.595 1.115
-2.855 -0.585 1.115
-2.865 -0.575 1.105
-2.865 -0.565 1.105
-2.865 -0.575 1.115
-2.865 -0.565 1.115
-2.825 -0.595 1.085
-2.835 -0.585 1.085
-2.825 -0.595 1.095
-2.835 -0.585 1.095
-2.805 -0.595 1.095
-2.835 -0.575 1.085
-2.835 -0.565 1.085
-2.835 -0.575 1.095
-2.835 -0.565 1.095
-2.825 -0.595 1.105
-2.835 -0.585 1.105
-2.825 -0.595 1.115
-2.835 -0.585 1.115
-2.805 -0.595 1.105
-2.805 -0.595 1.115
-2.835 -0.575 1.105
-2.835 -0.575 1.115
-2.785 -0.635 1.045
-2.795 -0.625 1.045
-2.785 -0.625 1.045
-2.785 -0.635 1.055
-2.795 -0.625 1.055
-2.785 -0.625 1.055
-2.765 -0.635 1.045
-2.765 -0.625 1.045
-2.765 -0.635 1.055
-2.765 -0.625 1.055
-2.795 -0.615 1.045
-2.795 -0.615 1.055
-2.785 -0.635 1.065
-2.795 -0.625 1.065
-2.785 -0.625 1.065
-2.785 -0.635 1.075
-2.795 -0.625 1.075
-2.785 -0.625 1.075
-2.765 -0.635 1.065
-2.765 -0.625 1.065
-2.765 -0.635 1.075
-2.765 -0.625 1.075
-2.795 -0.615 1.065
-2.795 -0.615 1.075
-2.765 -0.615 1.075
-2.735 -0.635 1.045
-2.735 -0.625 1.045
-2.735 -0.635 1.055
-2.735 -0.635 1.065
-2.785 -0.635 1.085
-2.795 -0.625 1.085
-2.785 -0.625 1.085
-2.785 -0.635 1.095
-2.795 -0.625 1.095
-2.785 -0.625 1.095
-2.765 -0.635 1.085
-2.765 -0.625 1.085
-2.765 -0.635 1.095
-2.765 -0.625 1.095
-2.795 -0.615 1.085
-2.795 -0.605 1.085
-2.795 -0.615 1.095
-2.795 -0.605 1.095
-2.765 -0.615 1.085
-2.775 -0.605 1.085
-2.765 -0.615 1.095
-2.775 -0.605 1.095
-2.785 -0.635 1.105
-2.795 -0.625 1.105
-2.785 -0.625 1.105
-2.785 -0.635 1.115
-2.795 -0.625 1.115
-2.785 -0.625 1.115
-2.765 -0.635 1.105
-2.765 -0.625 1.105
-2.765 -0.635 1.115
-2.765 -0.625 1.115
-2.795 -0.615 1.105
-2.795 -0.605 1.105
-2.795 -0.615 1.115
-2.795 -0.605 1.115
-2.765 -0.615 1.105
-2.775 -0.605 1.105
-2.765 -0.615 1.115
-2.875 -0.555 1.045
-2.865 -0.555 1.045
-2.875 -0.545 1.045
-2.875 -0.555 1.055
-2.865 -0.555 1.055
-2.875 -0.545 1.055
-2.875 -0.555 1.065
-2.865 -0.555 1.065
-2.875 -0.545 1.065
-2.875 -0.555 1.075
-2.865 -0.555 1.075
-2.875 -0.545 1.075
-2.875 -0.535 1.065
-2.875 -0.535 1.075
-2.875 -0.555 1.085
-2.865 -0.555 1.085
-2.875 -0.545 1.085
-2.875 -0.555 1.095
-2.865 -0.555 1.095
-2.875 -0.545 1.095
-2.875 -0.535 1.085
-2.875 -0.535 1.095
-2.875 -0.555 1.105
-2.865 -0.555 1.105
-2.875 -0.545 1.105
-2.875 -0.555 1.115
-2.865 -0.555 1.115
-2.875 -0.545 1.115
-2.875 -0.535 1.105
-2.875 -0.535 1.115
-2.855 -0.605 1.125
-2.855 -0.605 1.135
-2.825 -0.615 1.125
-2.825 -0.605 1.125
-2.825 -0.615 1.135
-2.825 -0.605 1.135
-2.815 -0.625 1.145
-2.815 -0.625 1.155
-2.825 -0.615 1.145
-2.825 -0.605 1.145
-2.825 -0.615 1.155
-2.825 -0.605 1.155
-2.865 -0.585 1.125
-2.865 -0.585 1.135
-2.855 -0.595 1.125
-2.855 -0.585 1.125
-2.855 -0.595 1.135
-2.855 -0.585 1.135
-2.865 -0.575 1.125
-2.865 -0.565 1.125
-2.865 -0.575 1.135
-2.865 -0.565 1.135
-2.865 -0.585 1.145
-2.865 -0.585 1.155
-2.855 -0.595 1.145
-2.855 -0.585 1.145
-2.855 -0.595 1.155
-2.855 -0.585 1.155
-2.865 -0.575 1.145
-2.865 -0.565 1.145
-2.865 -0.575 1.155
-2.865 -0.565 1.155
-2.825 -0.595 1.125
-2.835 -0.585 1.125
-2.825 -0.595 1.135
-2.835 -0.585 1.135
-2.835 -0.575 1.125
-2.825 -0.595 1.145
-2.835 -0.585 1.145
-2.825 -0.595 1.155
-2.835 -0.585 1.155
-2.855 -0.605 1.165
-2.855 -0.605 1.175
-2.855 -0.605 1.185
-2.855 -0.605 1.195
-2.815 -0.635 1.165
-2.815 -0.625 1.165
-2.815 -0.635 1.175
-2.815 -0.625 1.175
-2.825 -0.615 1.165
-2.825 -0.605 1.165
-2.825 -0.615 1.175
-2.825 -0.605 1.175
-2.815 -0.635 1.185
-2.815 -0.625 1.185
-2.815 -0.635 1.195
-2.815 -0.625 1.195
-2.825 -0.615 1.185
-2.825 -0.605 1.185
-2.825 -0.615 1.195
-2.825 -0.605 1.195
-2.865 -0.585 1.165
-2.865 -0.585 1.175
-2.855 -0.595 1.165
-2.855 -0.585 1.165
-2.855 -0.595 1.175
-2.855 -0.585 1.175
-2.865 -0.575 1.165
-2.865 -0.565 1.165
-2.865 -0.575 1.175
-2.865 -0.565 1.175
-2.865 -0.585 1.185
-2.865 -0.585 1.195
-2.855 -0.595 1.185
-2.855 -0.585 1.185
-2.855 -0.595 1.195
-2.855 -0.585 1.195
-2.865 -0.575 1.185
-2.865 -0.565 1.185
-2.865 -0.575 1.195
-2.865 -0.565 1.195
-2.845 -0.565 1.185
-2.845 -0.565 1.195
-2.825 -0.595 1.165
-2.835 -0.585 1.165
-2.825 -0.595 1.175
-2.835 -0.585 1.175
-2.835 -0.575 1.165
-2.835 -0.575 1.175
-2.825 -0.595 1.185
-2.835 -0.585 1.185
-2.825 -0.595 1.195
-2.835 -0.585 1.195
-2.835 -0.575 1.185
-2.835 -0.565 1.185
-2.835 -0.575 1.195
-2.835 -0.565 1.195
-2.785 -0.635 1.125
-2.795 -0.625 1.125
-2.785 -0.625 1.125
-2.785 -0.635 1.135
-2.795 -0.625 1.135
-2.785 -0.625 1.135
-2.765 -0.635 1.125
-2.765 -0.625 1.125
-2.765 -0.635 1.135
-2.795 -0.615 1.125
-2.795 -0.605 1.125
-2.795 -0.615 1.135
-2.795 -0.605 1.135
-2.785 -0.635 1.145
-2.795 -0.625 1.145
-2.785 -0.625 1.145
-2.785 -0.635 1.155
-2.795 -0.625 1.155
-2.785 -0.625 1.155
-2.765 -0.635 1.145
-2.765 -0.635 1.155
-2.795 -0.615 1.145
-2.795 -0.615 1.155
-2.785 -0.635 1.165
-2.795 -0.625 1.165
-2.785 -0.625 1.165
-2.785 -0.635 1.175
-2.795 -0.625 1.175
-2.785 -0.625 1.175
-2.795 -0.615 1.165
-2.795 -0.615 1.175
-2.785 -0.635 1.185
-2.795 -0.625 1.185
-2.785 -0.625 1.185
-2.785 -0.635 1.195
-2.795 -0.625 1.195
-2.785 -0.625 1.195
-2.765 -0.635 1.185
-2.765 -0.635 1.195
-2.765 -0.625 1.195
-2.795 -0.615 1.185
-2.795 -0.615 1.195
-2.765 -0.615 1.195
-2.735 -0.635 1.185
-2.735 -0.625 1.185
-2.735 -0.635 1.195
-2.735 -0.625 1.195
-2.745 -0.615 1.195
-2.875 -0.555 1.125
-2.865 -0.555 1.125
-2.875 -0.545 1.125
-2.875 -0.555 1.135
-2.865 -0.555 1.135
-2.875 -0.545 1.135
-2.875 -0.535 1.125
-2.875 -0.535 1.135
-2.875 -0.555 1.145
-2.865 -0.555 1.145
-2.875 -0.545 1.145
-2.875 -0.555 1.155
-2.865 -0.555 1.155
-2.875 -0.545 1.155
-2.875 -0.535 1.145
-2.875 -0.535 1.155
-2.875 -0.555 1.165
-2.865 -0.555 1.165
-2.875 -0.545 1.165
-2.875 -0.555 1.175
-2.865 -0.555 1.175
-2.875 -0.545 1.175
-2.875 -0.535 1.165
-2.875 -0.535 1.175
-2.875 -0.555 1.185
-2.865 -0.555 1.185
-2.875 -0.545 1.185
-2.875 -0.555 1.195
-2.865 -0.555 1.195
-2.875 -0.545 1.195
-2.845 -0.555 1.185
-2.845 -0.555 1.195
-2.845 -0.545 1.195
-2.875 -0.535 1.185
-2.875 -0.535 1.195
-2.855 -0.605 1.205
-2.815 -0.635 1.205
-2.815 -0.625 1.205
-2.815 -0.625 1.215
-2.825 -0.615 1.205
-2.825 -0.605 1.205
-2.825 -0.615 1.215
-2.825 -0.605 1.215
-2.825 -0.615 1.225
-2.825 -0.605 1.225
-2.825 -0.605 1.235
-2.865 -0.585 1.205
-2.855 -0.595 1.205
-2.855 -0.595 1.215
-2.865 -0.575 1.205
-2.865 -0.565 1.205
-2.865 -0.565 1.215
-2.845 -0.565 1.205
-2.845 -0.565 1.215
-2.845 -0.565 1.225
-2.845 -0.565 1.235
-2.825 -0.595 1.205
-2.835 -0.585 1.205
-2.825 -0.595 1.215
-2.835 -0.585 1.215
-2.805 -0.595 1.215
-2.835 -0.575 1.205
-2.835 -0.565 1.205
-2.835 -0.575 1.215
-2.835 -0.565 1.215
-2.825 -0.595 1.225
-2.835 -0.585 1.225
-2.825 -0.595 1.235
-2.835 -0.585 1.235
-2.805 -0.595 1.225
-2.805 -0.585 1.225
-2.805 -0.595 1.235
-2.805 -0.585 1.235
-2.835 -0.575 1.225
-2.835 -0.565 1.225
-2.835 -0.575 1.235
-2.835 -0.565 1.235
-2.815 -0.575 1.225
-2.805 -0.575 1.225
-2.815 -0.575 1.235
-2.805 -0.575 1.235
-2.815 -0.565 1.235
-2.845 -0.565 1.245
-2.845 -0.565 1.255
-2.845 -0.565 1.265
-2.845 -0.565 1.275
-2.835 -0.585 1.245
-2.835 -0.585 1.255
-2.805 -0.595 1.245
-2.805 -0.585 1.245
-2.805 -0.595 1.255
-2.805 -0.585 1.255
-2.835 -0.575 1.245
-2.835 -0.565 1.245
-2.835 -0.575 1.255
-2.835 -0.565 1.255
-2.815 -0.575 1.245
-2.805 -0.575 1.245
-2.815 -0.565 1.245
-2.815 -0.575 1.255
-2.805 -0.575 1.255
-2.815 -0.565 1.255
-2.835 -0.585 1.265
-2.835 -0.585 1.275
-2.805 -0.595 1.265
-2.805 -0.585 1.265
-2.805 -0.595 1.275
-2.805 -0.585 1.275
-2.835 -0.575 1.265
-2.835 -0.565 1.265
-2.835 -0.575 1.275
-2.835 -0.565 1.275
-2.815 -0.575 1.265
-2.805 -0.575 1.265
-2.815 -0.565 1.265
-2.815 -0.575 1.275
-2.805 -0.575 1.275
-2.815 -0.565 1.275
-2.795 -0.625 1.205
-2.765 -0.635 1.205
-2.765 -0.625 1.205
-2.765 -0.635 1.215
-2.765 -0.625 1.215
-2.795 -0.615 1.205
-2.795 -0.605 1.205
-2.795 -0.615 1.215
-2.795 -0.605 1.215
-2.765 -0.615 1.205
-2.765 -0.615 1.215
-2.765 -0.635 1.225
-2.765 -0.625 1.225
-2.765 -0.635 1.235
-2.765 -0.625 1.235
-2.795 -0.615 1.225
-2.795 -0.605 1.225
-2.795 -0.615 1.235
-2.795 -0.605 1.235
-2.765 -0.615 1.225
-2.775 -0.605 1.225
-2.765 -0.615 1.235
-2.775 -0.605 1.235
-2.735 -0.635 1.205
-2.735 -0.625 1.205
-2.735 -0.635 1.215
-2.735 -0.625 1.215
-2.745 -0.615 1.205
-2.745 -0.615 1.215
-2.735 -0.635 1.225
-2.735 -0.625 1.225
-2.735 -0.635 1.235
-2.735 -0.625 1.235
-2.745 -0.615 1.225
-2.745 -0.615 1.235
-2.775 -0.595 1.235
-2.765 -0.635 1.245
-2.765 -0.625 1.245
-2.765 -0.635 1.255
-2.765 -0.625 1.255
-2.795 -0.615 1.245
-2.795 -0.605 1.245
-2.795 -0.615 1.255
-2.795 -0.605 1.255
-2.765 -0.615 1.245
-2.775 -0.605 1.245
-2.765 -0.615 1.255
-2.775 -0.605 1.255
-2.785 -0.635 1.265
-2.795 -0.625 1.265
-2.795 -0.625 1.275
-2.765 -0.635 1.265
-2.765 -0.625 1.265
-2.765 -0.635 1.275
-2.765 -0.625 1.275
-2.795 -0.615 1.265
-2.795 -0.605 1.265
-2.795 -0.615 1.275
-2.795 -0.605 1.275
-2.765 -0.615 1.265
-2.775 -0.605 1.265
-2.765 -0.615 1.275
-2.735 -0.635 1.245
-2.735 -0.635 1.255
-2.735 -0.635 1.265
-2.775 -0.595 1.245
-2.775 -0.585 1.245
-2.775 -0.595 1.255
-2.875 -0.555 1.205
-2.865 -0.555 1.205
-2.875 -0.545 1.205
-2.875 -0.555 1.215
-2.865 -0.555 1.215
-2.875 -0.545 1.215
-2.845 -0.555 1.205
-2.845 -0.545 1.205
-2.845 -0.555 1.215
-2.845 -0.545 1.215
-2.875 -0.535 1.205
-2.875 -0.535 1.215
-2.855 -0.535 1.215
-2.875 -0.555 1.225
-2.865 -0.555 1.225
-2.875 -0.545 1.225
-2.845 -0.555 1.225
-2.845 -0.545 1.225
-2.845 -0.555 1.235
-2.845 -0.545 1.235
-2.875 -0.535 1.225
-2.875 -0.535 1.235
-2.855 -0.535 1.225
-2.855 -0.525 1.225
-2.855 -0.535 1.235
-2.855 -0.525 1.235
-2.845 -0.555 1.245
-2.845 -0.545 1.245
-2.845 -0.555 1.255
-2.845 -0.545 1.255
-2.875 -0.535 1.245
-2.855 -0.535 1.245
-2.855 -0.525 1.245
-2.855 -0.535 1.255
-2.855 -0.525 1.255
-2.845 -0.555 1.265
-2.845 -0.545 1.265
-2.845 -0.555 1.275
-2.845 -0.545 1.275
-2.855 -0.535 1.265
-2.855 -0.525 1.265
-2.855 -0.535 1.275
-2.855 -0.525 1.275
-3.195 -0.315 0.965
-3.195 -0.305 0.965
-3.195 -0.315 0.975
-3.195 -0.305 0.975
-3.165 -0.315 0.965
-3.175 -0.305 0.965
-3.165 -0.305 0.965
-3.165 -0.315 0.975
-3.175 -0.305 0.975
-3.165 -0.305 0.975
-3.175 -0.295 0.965
-3.175 -0.285 0.965
-3.175 -0.295 0.975
-3.175 -0.285 0.975
-3.195 -0.315 0.985
-3.195 -0.305 0.985
-3.195 -0.315 0.995
-3.195 -0.305 0.995
-3.165 -0.315 0.985
-3.175 -0.305 0.985
-3.165 -0.305 0.985
-3.165 -0.315 0.995
-3.175 -0.305 0.995
-3.165 -0.305 0.995
-3.175 -0.295 0.985
-3.175 -0.295 0.995
-3.175 -0.285 0.995
-3.195 -0.315 1.005
-3.195 -0.305 1.005
-3.165 -0.315 1.005
-3.175 -0.305 1.005
-3.165 -0.305 1.005
-3.165 -0.315 1.015
-3.175 -0.305 1.015
-3.165 -0.305 1.015
-3.175 -0.295 1.005
-3.175 -0.285 1.005
-3.175 -0.295 1.015
-3.165 -0.315 1.025
-3.175 -0.305 1.025
-3.165 -0.305 1.025
-3.165 -0.315 1.035
-3.175 -0.305 1.035
-3.165 -0.305 1.035
-3.175 -0.295 1.025
-3.175 -0.285 1.025
-3.175 -0.295 1.035
-3.175 -0.285 1.035
-3.135 -0.305 1.035
-3.145 -0.295 1.035
-3.185 -0.275 1.025
-3.185 -0.275 1.035
-3.165 -0.315 1.045
-3.175 -0.305 1.045
-3.165 -0.305 1.045
-3.165 -0.315 1.055
-3.175 -0.305 1.055
-3.165 -0.305 1.055
-3.175 -0.295 1.045
-3.175 -0.285 1.045
-3.175 -0.295 1.055
-3.175 -0.285 1.055
-3.195 -0.315 1.075
-3.195 -0.305 1.075
-3.165 -0.315 1.065
-3.175 -0.305 1.065
-3.165 -0.305 1.065
-3.165 -0.315 1.075
-3.175 -0.305 1.075
-3.165 -0.305 1.075
-3.175 -0.295 1.065
-3.175 -0.285 1.065
-3.175 -0.295 1.075
-3.175 -0.285 1.075
-3.185 -0.275 1.045
-3.185 -0.265 1.045
-3.185 -0.275 1.055
-3.185 -0.265 1.055
-3.185 -0.275 1.065
-3.185 -0.265 1.065
-3.185 -0.275 1.075
-3.185 -0.265 1.075
-3.185 -0.255 1.065
-3.185 -0.255 1.075
-3.195 -0.315 1.085
-3.195 -0.305 1.085
-3.195 -0.315 1.095
-3.195 -0.305 1.095
-3.165 -0.315 1.085
-3.175 -0.305 1.085
-3.165 -0.305 1.085
-3.165 -0.315 1.095
-3.175 -0.305 1.095
-3.165 -0.305 1.095
-3.175 -0.295 1.085
-3.175 -0.285 1.085
-3.165 -0.315 1.105
-3.175 -0.305 1.105
-3.165 -0.305 1.105
-3.165 -0.315 1.115
-3.175 -0.305 1.115
-3.165 -0.305 1.115
-3.175 -0.295 1.115
-3.185 -0.275 1.085
-3.185 -0.265 1.085
-3.165 -0.315 1.125
-3.175 -0.305 1.125
-3.165 -0.305 1.125
-3.165 -0.315 1.135
-3.175 -0.305 1.135
-3.165 -0.305 1.135
-3.175 -0.295 1.125
-3.175 -0.295 1.135
-3.175 -0.285 1.135
-3.195 -0.315 1.155
-3.165 -0.315 1.145
-3.175 -0.305 1.145
-3.165 -0.305 1.145
-3.165 -0.315 1.155
-3.175 -0.305 1.155
-3.165 -0.305 1.155
-3.175 -0.295 1.145
-3.175 -0.285 1.145
-3.175 -0.295 1.155
-3.175 -0.285 1.155
-3.185 -0.275 1.135
-3.185 -0.265 1.135
-3.185 -0.275 1.145
-3.185 -0.265 1.145
-3.185 -0.275 1.155
-3.185 -0.265 1.155
-3.185 -0.255 1.145
-3.185 -0.255 1.155
-3.195 -0.315 1.165
-3.195 -0.315 1.175
-3.165 -0.315 1.165
-3.175 -0.305 1.165
-3.165 -0.305 1.165
-3.165 -0.315 1.175
-3.175 -0.305 1.175
-3.165 -0.305 1.175
-3.175 -0.295 1.165
-3.175 -0.285 1.165
-3.175 -0.295 1.175
-3.175 -0.285 1.175
-3.165 -0.315 1.185
-3.175 -0.305 1.185
-3.165 -0.305 1.185
-3.165 -0.315 1.195
-3.175 -0.305 1.195
-3.165 -0.305 1.195
-3.175 -0.295 1.185
-3.175 -0.295 1.195
-3.135 -0.315 1.185
-3.135 -0.315 1.195
-3.185 -0.275 1.165
-3.185 -0.265 1.165
-3.165 -0.315 1.205
-3.175 -0.305 1.205
-3.165 -0.305 1.205
-3.165 -0.315 1.215
-3.175 -0.305 1.215
-3.165 -0.305 1.215
-3.175 -0.295 1.205
-3.175 -0.295 1.215
-3.165 -0.315 1.225
-3.175 -0.305 1.225
-3.165 -0.305 1.225
-3.165 -0.315 1.235
-3.175 -0.305 1.235
-3.165 -0.305 1.235
-3.175 -0.295 1.225
-3.175 -0.295 1.235
-3.175 -0.285 1.235
-3.135 -0.315 1.205
-3.135 -0.315 1.215
-3.135 -0.305 1.215
-3.135 -0.315 1.225
-3.135 -0.305 1.225
-3.135 -0.315 1.235
-3.135 -0.305 1.235
-3.165 -0.315 1.245
-3.175 -0.305 1.245
-3.165 -0.305 1.245
-3.165 -0.315 1.255
-3.175 -0.305 1.255
-3.165 -0.305 1.255
-3.175 -0.295 1.245
-3.175 -0.285 1.245
-3.175 -0.295 1.255
-3.175 -0.285 1.255
-3.165 -0.315 1.265
-3.175 -0.305 1.265
-3.165 -0.305 1.265
-3.165 -0.315 1.275
-3.175 -0.305 1.275
-3.165 -0.305 1.275
-3.175 -0.295 1.265
-3.175 -0.285 1.265
-3.175 -0.295 1.275
-3.175 -0.285 1.275
-3.135 -0.305 1.245
-3.135 -0.305 1.255
-3.145 -0.295 1.245
-3.145 -0.285 1.245
-3.145 -0.295 1.255
-3.145 -0.285 1.255
-3.145 -0.295 1.265
-3.145 -0.285 1.265
-3.145 -0.285 1.275
-3.185 -0.275 1.255
-3.185 -0.265 1.255
-3.185 -0.275 1.265
-3.185 -0.265 1.265
-3.185 -0.275 1.275
-3.185 -0.265 1.275
-3.185 -0.255 1.275
-3.155 -0.275 1.265
-3.145 -0.275 1.265
-3.155 -0.275 1.275
-3.145 -0.275 1.275
-2.745 -0.685 1.285
-2.745 -0.685 1.295
-2.745 -0.685 1.305
-2.745 -0.675 1.285
-2.755 -0.665 1.285
-2.745 -0.665 1.285
-2.745 -0.675 1.295
-2.755 -0.665 1.295
-2.745 -0.665 1.295
-2.725 -0.675 1.285
-2.725 -0.675 1.295
-2.725 -0.665 1.295
-2.755 -0.655 1.285
-2.755 -0.645 1.285
-2.755 -0.655 1.295
-2.755 -0.645 1.295
-2.745 -0.675 1.305
-2.755 -0.665 1.305
-2.745 -0.665 1.305
-2.745 -0.675 1.315
-2.755 -0.665 1.315
-2.745 -0.665 1.315
-2.725 -0.675 1.305
-2.725 -0.665 1.305
-2.725 -0.675 1.315
-2.725 -0.665 1.315
-2.755 -0.655 1.305
-2.755 -0.645 1.305
-2.755 -0.655 1.315
-2.755 -0.645 1.315
-2.725 -0.655 1.305
-2.725 -0.655 1.315
-2.745 -0.675 1.325
-2.755 -0.665 1.325
-2.745 -0.665 1.325
-2.755 -0.665 1.335
-2.745 -0.665 1.335
-2.725 -0.675 1.325
-2.725 -0.665 1.325
-2.725 -0.675 1.335
-2.725 -0.665 1.335
-2.755 -0.655 1.325
-2.755 -0.645 1.325
-2.755 -0.655 1.335
-2.755 -0.645 1.335
-2.725 -0.655 1.325
-2.735 -0.645 1.325
-2.725 -0.655 1.335
-2.735 -0.645 1.335
-2.725 -0.675 1.345
-2.725 -0.665 1.345
-2.725 -0.675 1.355
-2.725 -0.665 1.355
-2.755 -0.655 1.345
-2.755 -0.645 1.345
-2.755 -0.655 1.355
-2.755 -0.645 1.355
-2.725 -0.655 1.345
-2.735 -0.645 1.345
-2.725 -0.655 1.355
-2.735 -0.645 1.355
-2.725 -0.675 1.365
-2.725 -0.665 1.365
-2.725 -0.675 1.375
-2.725 -0.665 1.375
-2.755 -0.655 1.365
-2.755 -0.645 1.365
-2.755 -0.645 1.375
-2.725 -0.655 1.365
-2.735 -0.645 1.365
-2.725 -0.655 1.375
-2.735 -0.645 1.375
-2.725 -0.675 1.385
-2.725 -0.665 1.385
-2.725 -0.675 1.395
-2.725 -0.665 1.395
-2.725 -0.655 1.385
-2.735 -0.645 1.385
-2.725 -0.655 1.395
-2.735 -0.645 1.395
-2.735 -0.645 1.405
-2.735 -0.645 1.415
-2.735 -0.645 1.425
-2.665 -0.745 1.285
-2.645 -0.745 1.285
-2.645 -0.745 1.295
-2.675 -0.735 1.285
-2.675 -0.725 1.285
-2.675 -0.735 1.295
-2.675 -0.725 1.295
-2.645 -0.735 1.285
-2.655 -0.725 1.285
-2.645 -0.735 1.295
-2.655 -0.725 1.295
-2.645 -0.745 1.305
-2.645 -0.745 1.315
-2.675 -0.725 1.305
-2.645 -0.735 1.305
-2.655 -0.725 1.305
-2.645 -0.735 1.315
-2.655 -0.725 1.315
-2.645 -0.745 1.325
-2.645 -0.745 1.335
-2.675 -0.725 1.325
-2.675 -0.725 1.335
-2.645 -0.735 1.325
-2.655 -0.725 1.325
-2.645 -0.735 1.335
-2.655 -0.725 1.335
-2.665 -0.745 1.345
-2.665 -0.755 1.355
-2.665 -0.745 1.355
-2.645 -0.745 1.345
-2.645 -0.745 1.355
-2.675 -0.735 1.345
-2.675 -0.725 1.345
-2.675 -0.735 1.355
-2.675 -0.725 1.355
-2.645 -0.735 1.345
-2.655 -0.725 1.345
-2.645 -0.735 1.355
-2.635 -0.765 1.285
-2.635 -0.765 1.295
-2.605 -0.775 1.285
-2.615 -0.765 1.285
-2.605 -0.765 1.285
-2.605 -0.775 1.295
-2.615 -0.765 1.295
-2.605 -0.765 1.295
-2.635 -0.775 1.305
-2.635 -0.765 1.305
-2.635 -0.775 1.315
-2.635 -0.765 1.315
-2.605 -0.775 1.305
-2.615 -0.765 1.305
-2.605 -0.765 1.305
-2.605 -0.775 1.315
-2.615 -0.765 1.315
-2.605 -0.765 1.315
-2.585 -0.785 1.285
-2.585 -0.785 1.295
-2.575 -0.795 1.285
-2.575 -0.785 1.285
-2.575 -0.795 1.295
-2.575 -0.785 1.295
-2.585 -0.775 1.285
-2.585 -0.765 1.285
-2.585 -0.775 1.295
-2.585 -0.785 1.305
-2.585 -0.785 1.315
-2.575 -0.795 1.305
-2.575 -0.785 1.305
-2.575 -0.785 1.315
-2.585 -0.775 1.305
-2.585 -0.765 1.305
-2.585 -0.775 1.315
-2.585 -0.765 1.315
-2.565 -0.775 1.305
-2.565 -0.775 1.315
-2.635 -0.755 1.285
-2.635 -0.755 1.295
-2.615 -0.755 1.285
-2.615 -0.745 1.285
-2.615 -0.755 1.295
-2.635 -0.755 1.305
-2.635 -0.755 1.315
-2.615 -0.755 1.315
-2.585 -0.755 1.315
-2.635 -0.775 1.325
-2.635 -0.765 1.325
-2.635 -0.765 1.335
-2.605 -0.775 1.325
-2.615 -0.765 1.325
-2.605 -0.765 1.325
-2.615 -0.765 1.335
-2.635 -0.765 1.345
-2.635 -0.765 1.355
-2.605 -0.775 1.345
-2.615 -0.765 1.345
-2.605 -0.765 1.345
-2.615 -0.765 1.355
-2.605 -0.765 1.355
-2.585 -0.785 1.325
-2.585 -0.785 1.335
-2.575 -0.795 1.325
-2.575 -0.785 1.325
-2.575 -0.785 1.335
-2.585 -0.775 1.325
-2.585 -0.765 1.325
-2.585 -0.775 1.335
-2.585 -0.765 1.335
-2.565 -0.775 1.325
-2.565 -0.775 1.335
-2.585 -0.785 1.345
-2.585 -0.785 1.355
-2.585 -0.775 1.345
-2.585 -0.765 1.345
-2.585 -0.775 1.355
-2.585 -0.765 1.355
-2.565 -0.775 1.345
-2.565 -0.775 1.355
-2.635 -0.755 1.325
-2.635 -0.755 1.335
-2.615 -0.755 1.325
-2.615 -0.745 1.325
-2.615 -0.755 1.335
-2.615 -0.745 1.335
-2.635 -0.755 1.345
-2.635 -0.755 1.355
-2.615 -0.755 1.345
-2.615 -0.755 1.355
-2.585 -0.755 1.325
-2.585 -0.755 1.335
-2.585 -0.755 1.345
-2.705 -0.705 1.285
-2.705 -0.705 1.295
-2.685 -0.705 1.285
-2.685 -0.705 1.295
-2.715 -0.695 1.285
-2.715 -0.685 1.285
-2.715 -0.695 1.295
-2.715 -0.685 1.295
-2.685 -0.695 1.285
-2.695 -0.685 1.285
-2.685 -0.695 1.295
-2.695 -0.685 1.295
-2.705 -0.705 1.305
-2.705 -0.705 1.315
-2.685 -0.705 1.305
-2.685 -0.705 1.315
-2.715 -0.695 1.305
-2.715 -0.685 1.305
-2.715 -0.695 1.315
-2.715 -0.685 1.315
-2.685 -0.695 1.305
-2.695 -0.685 1.305
-2.685 -0.695 1.315
-2.695 -0.685 1.315
-2.675 -0.715 1.285
-2.675 -0.715 1.295
-2.655 -0.715 1.285
-2.655 -0.705 1.285
-2.655 -0.715 1.295
-2.655 -0.705 1.295
-2.675 -0.715 1.305
-2.675 -0.715 1.315
-2.655 -0.715 1.305
-2.655 -0.705 1.305
-2.655 -0.715 1.315
-2.655 -0.705 1.315
-2.665 -0.695 1.315
-2.715 -0.675 1.285
-2.715 -0.675 1.295
-2.695 -0.675 1.295
-2.715 -0.675 1.305
-2.715 -0.675 1.315
-2.695 -0.675 1.305
-2.695 -0.675 1.315
-2.705 -0.705 1.325
-2.705 -0.705 1.335
-2.685 -0.705 1.325
-2.685 -0.705 1.335
-2.715 -0.695 1.325
-2.715 -0.685 1.325
-2.715 -0.695 1.335
-2.715 -0.685 1.335
-2.685 -0.695 1.325
-2.695 -0.685 1.325
-2.685 -0.695 1.335
-2.695 -0.685 1.335
-2.705 -0.705 1.345
-2.705 -0.705 1.355
-2.685 -0.705 1.345
-2.685 -0.705 1.355
-2.715 -0.695 1.345
-2.715 -0.685 1.345
-2.715 -0.695 1.355
-2.715 -0.685 1.355
-2.685 -0.695 1.345
-2.695 -0.685 1.345
-2.685 -0.695 1.355
-2.695 -0.685 1.355
-2.675 -0.715 1.325
-2.675 -0.715 1.335
-2.655 -0.715 1.325
-2.655 -0.705 1.325
-2.655 -0.715 1.335
-2.675 -0.715 1.345
-2.675 -0.715 1.355
-2.655 -0.715 1.355
-2.715 -0.675 1.325
-2.715 -0.675 1.335
-2.695 -0.675 1.325
-2.695 -0.665 1.325
-2.695 -0.675 1.335
-2.695 -0.665 1.335
-2.705 -0.655 1.325
-2.705 -0.645 1.325
-2.705 -0.655 1.335
-2.705 -0.645 1.335
-2.715 -0.675 1.345
-2.715 -0.675 1.355
-2.695 -0.675 1.345
-2.695 -0.665 1.345
-2.695 -0.675 1.355
-2.695 -0.665 1.355
-2.705 -0.655 1.345
-2.705 -0.655 1.355
-2.705 -0.645 1.355
-2.665 -0.755 1.365
-2.665 -0.745 1.365
-2.665 -0.755 1.375
-2.665 -0.745 1.375
-2.645 -0.745 1.365
-2.645 -0.745 1.375
-2.675 -0.735 1.365
-2.675 -0.725 1.365
-2.675 -0.735 1.375
-2.675 -0.725 1.375
-2.645 -0.735 1.365
-2.655 -0.725 1.365
-2.645 -0.735 1.375
-2.655 -0.725 1.375
-2.665 -0.755 1.385
-2.665 -0.745 1.385
-2.645 -0.745 1.385
-2.645 -0.745 1.395
-2.675 -0.735 1.385
-2.675 -0.725 1.385
-2.645 -0.735 1.385
-2.655 -0.725 1.385
-2.645 -0.735 1.395
-2.655 -0.725 1.395
-2.645 -0.745 1.405
-2.645 -0.745 1.415
-2.645 -0.735 1.405
-2.655 -0.725 1.405
-2.645 -0.735 1.415
-2.655 -0.725 1.415
-2.645 -0.745 1.425
-2.645 -0.745 1.435
-2.645 -0.735 1.425
-2.655 -0.725 1.425
-2.645 -0.735 1.435
-2.655 -0.725 1.435
-2.635 -0.765 1.365
-2.635 -0.765 1.375
-2.615 -0.765 1.365
-2.605 -0.765 1.365
-2.615 -0.765 1.375
-2.605 -0.765 1.375
-2.635 -0.765 1.385
-2.635 -0.765 1.395
-2.615 -0.765 1.385
-2.605 -0.765 1.385
-2.615 -0.765 1.395
-2.585 -0.785 1.365
-2.585 -0.775 1.365
-2.585 -0.765 1.365
-2.585 -0.775 1.375
-2.585 -0.765 1.375
-2.565 -0.775 1.365
-2.565 -0.775 1.375
-2.585 -0.785 1.395
-2.585 -0.775 1.385
-2.585 -0.765 1.385
-2.585 -0.775 1.395
-2.585 -0.765 1.395
-2.565 -0.775 1.385
-2.565 -0.765 1.385
-2.565 -0.775 1.395
-2.565 -0.765 1.395
-2.635 -0.755 1.365
-2.635 -0.755 1.375
-2.615 -0.755 1.365
-2.615 -0.755 1.375
-2.635 -0.755 1.385
-2.635 -0.755 1.395
-2.615 -0.755 1.385
-2.615 -0.755 1.395
-2.615 -0.745 1.395
-2.585 -0.755 1.365
-2.585 -0.755 1.375
-2.595 -0.755 1.385
-2.585 -0.755 1.385
-2.595 -0.755 1.395
-2.585 -0.755 1.395
-2.595 -0.745 1.395
-2.585 -0.785 1.405
-2.585 -0.785 1.415
-2.575 -0.795 1.415
-2.575 -0.785 1.415
-2.585 -0.775 1.405
-2.585 -0.765 1.405
-2.585 -0.775 1.415
-2.585 -0.765 1.415
-2.565 -0.775 1.405
-2.565 -0.765 1.405
-2.565 -0.775 1.415
-2.635 -0.755 1.405
-2.615 -0.755 1.405
-2.615 -0.745 1.405
-2.615 -0.755 1.415
-2.615 -0.745 1.415
-2.625 -0.735 1.405
-2.625 -0.735 1.415
-2.615 -0.755 1.425
-2.615 -0.745 1.425
-2.625 -0.735 1.425
-2.595 -0.755 1.405
-2.585 -0.755 1.405
-2.595 -0.745 1.405
-2.595 -0.755 1.415
-2.585 -0.755 1.415
-2.595 -0.745 1.415
-2.705 -0.705 1.365
-2.705 -0.705 1.375
-2.685 -0.705 1.365
-2.685 -0.705 1.375
-2.715 -0.695 1.365
-2.715 -0.685 1.365
-2.715 -0.695 1.375
-2.715 -0.685 1.375
-2.685 -0.695 1.365
-2.695 -0.685 1.365
-2.685 -0.695 1.375
-2.695 -0.685 1.375
-2.705 -0.705 1.385
-2.705 -0.705 1.395
-2.685 -0.705 1.385
-2.685 -0.705 1.395
-2.715 -0.695 1.385
-2.715 -0.685 1.385
-2.715 -0.695 1.395
-2.715 -0.685 1.395
-2.685 -0.695 1.385
-2.695 -0.685 1.385
-2.685 -0.695 1.395
-2.695 -0.685 1.395
-2.675 -0.715 1.365
-2.675 -0.715 1.375
-2.655 -0.715 1.365
-2.655 -0.705 1.365
-2.655 -0.715 1.375
-2.655 -0.705 1.375
-2.665 -0.695 1.375
-2.675 -0.715 1.385
-2.655 -0.715 1.385
-2.655 -0.705 1.385
-2.655 -0.715 1.395
-2.655 -0.705 1.395
-2.665 -0.695 1.385
-2.665 -0.685 1.385
-2.665 -0.695 1.395
-2.665 -0.685 1.395
-2.715 -0.675 1.365
-2.715 -0.675 1.375
-2.695 -0.675 1.365
-2.695 -0.665 1.365
-2.695 -0.675 1.375
-2.695 -0.665 1.375
-2.705 -0.655 1.365
-2.705 -0.645 1.365
-2.705 -0.655 1.375
-2.705 -0.645 1.375
-2.715 -0.675 1.385
-2.715 -0.675 1.395
-2.695 -0.675 1.385
-2.695 -0.665 1.385
-2.695 -0.675 1.395
-2.695 -0.665 1.395
-2.705 -0.655 1.385
-2.705 -0.645 1.385
-2.705 -0.655 1.395
-2.705 -0.645 1.395
-2.665 -0.675 1.395
-2.685 -0.695 1.405
-2.695 -0.685 1.405
-2.695 -0.685 1.415
-2.685 -0.705 1.435
-2.685 -0.695 1.425
-2.695 -0.685 1.425
-2.685 -0.695 1.435
-2.695 -0.685 1.435
-2.655 -0.715 1.405
-2.655 -0.705 1.405
-2.655 -0.715 1.415
-2.655 -0.705 1.415
-2.665 -0.695 1.405
-2.665 -0.685 1.405
-2.665 -0.695 1.415
-2.665 -0.685 1.415
-2.675 -0.715 1.435
-2.655 -0.715 1.425
-2.655 -0.705 1.425
-2.655 -0.715 1.435
-2.655 -0.705 1.435
-2.665 -0.695 1.425
-2.665 -0.685 1.425
-2.665 -0.695 1.435
-2.665 -0.685 1.435
-2.695 -0.675 1.405
-2.695 -0.665 1.405
-2.695 -0.675 1.415
-2.695 -0.665 1.415
-2.705 -0.655 1.405
-2.705 -0.645 1.405
-2.705 -0.655 1.415
-2.705 -0.645 1.415
-2.695 -0.675 1.425
-2.695 -0.665 1.425
-2.695 -0.675 1.435
-2.695 -0.665 1.435
-2.705 -0.655 1.425
-2.705 -0.645 1.425
-2.705 -0.655 1.435
-2.705 -0.645 1.435
-2.675 -0.675 1.405
-2.665 -0.675 1.405
-2.675 -0.665 1.405
-2.675 -0.675 1.415
-2.665 -0.675 1.415
-2.675 -0.665 1.415
-2.675 -0.655 1.405
-2.675 -0.645 1.405
-2.675 -0.655 1.415
-2.675 -0.645 1.415
-2.675 -0.675 1.425
-2.665 -0.675 1.425
-2.675 -0.665 1.425
-2.675 -0.675 1.435
-2.665 -0.675 1.435
-2.675 -0.665 1.435
-2.675 -0.655 1.425
-2.675 -0.645 1.425
-2.675 -0.655 1.435
-2.675 -0.645 1.435
-2.675 -0.725 1.445
-2.685 -0.705 1.445
-2.685 -0.695 1.445
-2.695 -0.685 1.445
-2.675 -0.715 1.445
-2.695 -0.675 1.445
-2.695 -0.665 1.445
-2.705 -0.655 1.445
-2.705 -0.645 1.445
-3.525 -0.075 1.405
-3.525 -0.075 1.415
-3.525 -0.065 1.415
-3.525 -0.055 1.405
-3.525 -0.055 1.415
-3.535 -0.045 1.415
